# .PCD v0.7 - Point Cloud Data file format
VERSION 0.7
FIELDS x y z intensity ring
SIZE 4 4 4 4 2
TYPE F F F F U
COUNT 1 1 1 1 1
WIDTH 1325
HEIGHT 1
VIEWPOINT 0 0 0 1 0 0 0
POINTS 1325
DATA ascii
3.3867369 2.1179123 -1.1181986 2 1
2.8104579 1.5719997 -0.64404923 3 2
3.3008721 2.0642164 -0.60568619 1 3
8.1702271 5.1092906 -1.0379847 9 5
7.1049056 3.5299973 -0.74057841 0 6
10.425894 6.5198832 0.28613663 1 24
8.951376 4.4473968 0.11636427 0 22
5.6645155 3.1683862 -0.52984548 8 7
8.4958162 4.7520442 0.16991663 0 23
8.1205959 5.6481667 -0.63394719 14 9
9.9641609 6.2311363 0.6844126 0 27
8.3191509 4.6532283 0.38834751 0 26
8.164547 5.1057391 -0.44856003 17 12
8.1542749 4.5610065 -0.48965529 21 11
8.3019257 4.6435933 0.7765426 0 28
8.1239491 5.6504984 -0.40316495 9 13
5.7495503 2.8566034 -0.22419436 12 14
8.2050934 5.1310949 -0.2251872 0 16
8.8534641 6.1121616 -0.18778789 0 17
8.3072596 4.608583 -0.27647644 1 15
3.3908353 2.1040471 -1.1171203 1 1
2.8227878 1.5659859 -0.64561814 2 2
8.4664965 5.2535453 0 1 20
9.0134916 4.4390993 -0.11696961 0 18
3.3147738 2.0568502 -0.60691595 1 3
5.8709106 3.2569802 -0.85458332 0 4
8.8316212 6.0970821 0.062373463 0 21
8.3910837 4.655086 -0.055771131 0 19
8.1890488 4.0330653 -0.85211128 0 6
10.407812 6.4581513 0.28501999 1 24
8.1610661 5.064023 -0.6716153 21 8
8.1238365 5.6084485 -0.63266802 14 9
8.2716379 4.07374 -0.53697199 0 10
9.9519186 6.1752644 0.682087 0 27
8.3143721 4.6125288 0.38737053 0 26
8.1585522 5.0624628 -0.44725716 17 12
8.1596661 4.5267034 -0.48902723 22 11
8.3390017 4.6261921 0.77849537 0 28
8.1304665 5.6130261 -0.40251362 9 13
5.745142 2.8294535 -0.22363599 15 14
8.2229528 5.1024241 -0.2251872 0 16
8.8549528 6.0676532 -0.18736903 0 17
8.3057814 4.5699177 -0.27589461 1 15
3.4014401 2.0942168 -1.1181986 0 1
2.8110549 1.5466683 -0.6416958 2 2
8.5120344 5.2407346 0 1 20
3.3219342 2.0452662 -0.60691595 1 3
8.8924475 6.0933456 0.062652439 0 21
8.2355642 4.5312834 -0.054631993 0 19
8.2030783 4.0044532 -0.85211128 0 6
10.471157 6.446938 0.28613663 1 24
8.1549091 5.0208583 -0.66966212 22 8
8.1269016 5.5687723 -0.6313889 14 9
9.9462128 6.1237378 0.68022662 0 27
8.3199196 4.5776963 0.38688204 0 26
8.1625662 5.0255723 -0.44651267 17 12
8.1614199 4.4904885 -0.48818982 18 11
8.2957201 4.5643816 0.77296251 0 28
8.1302299 5.5710535 -0.40153664 9 13
5.7442069 2.8041191 -0.22321719 16 14
8.1964474 5.0464325 -0.22397752 0 16
8.2841187 5.6341119 -0.17487311 0 17
8.2971134 4.5274925 -0.27508008 1 15
3.4153032 2.0863473 -1.1203552 0 1
2.8164363 1.5368471 -0.6416958 2 2
8.5917177 5.2485266 0 2 20
3.318934 2.0274773 -0.60507125 1 3
5.806427 3.1683977 -0.84195656 0 4
8.3183155 5.6573691 0.058467858 0 21
8.2021732 4.4756866 -0.054306529 0 19
8.1655865 4.9882102 -1.0307021 14 5
8.1273785 3.9324307 -0.84281689 0 6
8.4177885 4.0729456 0.10886741 0 22
8.1553593 4.9819627 -0.66826707 22 8
8.2045727 4.4769959 0.1631451 0 23
8.1264839 5.5269032 -0.6298539 14 9
8.2998762 4.0158939 -0.53697199 0 10
9.9607115 6.0848198 0.67976147 0 27
8.3077793 4.5333128 0.38557938 0 26
8.166419 4.988719 -0.44576818 17 12
8.2801046 4.5182114 0.77003348 0 28
8.123188 5.5246611 -0.40023404 9 13
5.7467623 2.78057 -0.222938 16 14
8.2037735 5.011538 -0.22369835 0 16
8.3277206 4.5046592 -0.27554554 1 15
3.4394002 2.0837948 -1.1257467 0 1
2.8220506 1.5265133 -0.6416958 1 2
8.6895838 5.2646704 0 0 20
3.3331041 2.0193944 -0.60630107 1 3
5.9680758 3.228272 -0.86367464 0 4
8.2044497 4.4379792 -0.054213531 1 19
8.1702099 4.9500031 -1.0289886 15 5
8.2315226 3.9456508 -0.85211128 0 6
8.159914 4.9437652 -0.66715091 22 8
5.8630314 3.1714511 -0.54416561 0 7
8.1268349 5.4836817 -0.62831891 15 9
7.9544487 3.8128395 -0.5137164 0 10
9.9590406 6.0337839 0.67813361 0 27
8.1709805 4.9504695 -0.44502366 17 12
8.3001165 4.4897275 0.77035886 0 28
8.1268177 5.4836707 -0.39941987 9 13
5.7388916 2.7508473 -0.22224 20 14
8.1981468 4.966929 -0.22304699 0 16
8.2036343 5.4960036 -0.17235997 0 17
8.3144264 4.4618955 -0.27461466 1 15
3.4925056 2.1001692 -1.140843 0 1
2.8270967 1.5171473 -0.6416958 1 2
8.7481279 5.2605639 0 1 20
8.3268061 3.957422 -0.10733079 0 18
3.3363948 2.006294 -0.60568619 1 3
5.9472804 3.1915781 -0.85912901 0 4
8.2811775 5.5479531 0.057933159 0 21
8.1909246 4.3956189 -0.054027554 2 19
8.1627216 4.9085379 -1.0259899 16 5
8.2445612 3.918334 -0.85211128 0 6
8.3557072 3.9711573 0.10770331 0 22
8.1625843 4.9084554 -0.66603482 22 8
8.1715155 5.4744859 0.28625086 0 25
8.2144833 4.4082613 0.16272624 1 23
8.1250744 5.4433727 -0.62678391 14 9
8.1473799 3.8721471 -0.52534419 0 10
9.9447718 5.9801493 0.67580801 0 27
8.2370977 4.4203973 0.38085738 1 26
8.1736536 4.9151115 -0.44427916 17 12
8.3114452 4.4602952 0.77003348 0 28
8.128355 5.4455709 -0.39860573 9 13
5.729929 2.7232227 -0.22154202 19 14
8.2111454 4.9376574 -0.22295395 0 16
8.3052425 4.4196987 -0.2738001 1 15
3.5064306 2.0919132 -1.1429995 0 1
2.8462253 1.5146407 -0.64483368 1 2
3.3467717 1.9966617 -0.60630107 1 3
6.0144305 3.2006254 -0.86721021 0 4
8.1695585 4.8739038 -1.0247047 16 5
8.2581882 3.889533 -0.85211128 0 6
8.3658972 3.9402633 0.10765674 0 22
8.1659603 4.8717575 -0.66491872 22 8
8.2671528 5.4968476 0.28892717 0 25
8.2086372 4.3682895 0.16230738 0 23
8.1207561 5.399508 -0.62499315 14 9
8.092206 3.811357 -0.52092564 0 10
9.934721 5.9269881 0.673715 0 27
8.1736031 4.876317 -0.44334856 18 12
5.7231765 3.0456324 -0.33976504 2 11
8.3269634 4.4312577 0.77003348 0 28
8.1273432 5.4038882 -0.39762875 9 13
5.72855 2.698096 -0.22112322 20 14
8.1871195 4.8843808 -0.22183731 0 16
8.2918749 5.4716392 -0.17340712 1 17
8.327693 4.3944106 -0.27403283 1 15
3.5302858 2.0894692 -1.1483911 0 1
2.8445575 1.5010345 -0.64326477 1 2
8.870697 5.2502966 0 1 20
8.281743 3.8653607 -0.10639951 1 18
3.3503199 1.9829528 -0.60568619 1 3
6.0080204 3.170351 -0.86468488 0 4
8.3430767 5.5054259 0.058095891 2 21
8.1625652 4.8311753 -1.021706 16 5
8.2717152 3.8606808 -0.85211128 0 6
8.3868504 3.914418 0.10774987 0 22
8.1588802 4.8289938 -0.66296554 22 8
8.3388557 4.400301 -0.76970792 0 7
8.1295605 5.364531 -0.62422562 14 9
8.1742134 3.8151731 -0.52534419 0 10
9.8831854 5.8495579 0.66883135 0 27
8.2677584 4.3627839 0.38085738 0 26
8.1733828 4.8375773 -0.44241792 17 12
5.7161098 3.0163136 -0.33871832 2 11
8.3212261 4.3909984 0.76808071 0 28
8.1328154 5.3666787 -0.39697745 9 13
5.7379341 2.6780818 -0.22112322 21 14
8.197238 4.8516965 -0.22165121 0 16
8.3118734 5.4412127 -0.17340712 1 17
8.3153982 4.3490367 -0.27310193 1 15
3.5811062 2.1018641 -1.1624091 0 1
2.8465641 1.4887815 -0.64248031 1 2
8.9485245 5.2521715 0 1 20
8.2994843 3.8366609 -0.10644607 1 18
3.3643825 1.9746623 -0.60691595 1 3
6.0582757 3.1685388 -0.87024063 0 4
8.3565054 5.4704304 0.058049399 2 21
8.2833347 4.3322668 -0.054329775 0 19
8.1767864 4.7992144 -1.0212775 8 5
7.2482753 3.3507113 -0.74541152 0 6
8.4410763 3.9021158 0.10826208 0 22
8.1627588 4.7909808 -0.66184944 23 8
8.3549261 4.36971 -0.76970792 0 7
8.135808 5.3259544 -0.62320232 13 9
8.0069075 3.7014093 -0.5137164 0 10
9.8804512 5.7991486 0.66720349 0 27
8.2801495 4.3306012 0.38069451 0 26
8.1772738 4.7995 -0.44167343 18 12
5.7094274 2.9860876 -0.33767161 1 11
8.3337307 4.3586245 0.76775527 0 28
8.1256781 5.3193235 -0.39567479 9 13
5.7331953 2.6503246 -0.22056481 21 14
8.2184124 4.8236461 -0.22174425 0 16
8.2862797 5.3852859 -0.1724996 0 17
8.3404236 4.3269596 -0.27345103 1 15
3.6379836 2.1190577 -1.1785835 0 1
2.8619304 1.4847516 -0.64483368 1 2
8.9935446 5.2385721 0 1 20
8.3121614 3.8091152 -0.10644607 1 18
3.3640819 1.959515 -0.60568619 1 3
6.0793176 3.1539118 -0.87175584 0 4
8.3779554 5.4448667 0.058072645 1 21
5.6702538 3.3028171 -0.70684057 14 5
7.1977973 3.2984486 -0.73909128 0 6
12.610052 5.7786579 0.16148512 0 22
8.1682587 4.7578583 -0.66101235 22 8
8.3693714 4.3419776 -0.76970792 0 7
8.1366911 5.2880678 -0.62192321 14 9
8.2696228 3.7896214 -0.5297628 0 10
9.8858271 5.7583098 0.66627324 0 27
8.3015614 4.3067985 0.38102019 1 26
8.1758823 4.7622986 -0.44074279 18 12
5.6980247 2.9560995 -0.33641556 1 11
8.319828 4.3162746 0.76515156 0 28
8.1332216 5.2858133 -0.39518631 9 13
5.727417 2.6246352 -0.22000644 22 14
8.2136316 4.7842875 -0.22118594 0 16
8.254612 5.3238106 -0.17145245 0 17
8.3163671 4.2776995 -0.27217105 1 15
3.645359 2.1063445 -1.1785835 0 1
2.8601205 1.4711636 -0.64326477 1 2
10.359042 5.9856138 0 1 20
8.3436193 3.7883432 -0.1066789 2 18
3.3743243 1.9497365 -0.60630107 1 3
6.0797048 3.1272249 -0.87024063 0 4
8.346489 5.3830667 0.057723928 0 21
18.706093 9.6218758 -0.12225943 15 19
5.6507578 3.2650948 -0.70298505 4 5
6.9880581 3.1728632 -0.7164129 0 6
8.1640882 4.7173357 -0.65933818 24 8
8.3844786 4.3127341 -0.76970792 0 7
10.409552 6.7136388 0.3604899 1 25
8.1316185 5.2444863 -0.62013233 14 9
8.1446342 3.6979959 -0.52092564 0 10
9.8712921 5.7037845 0.66394764 0 27
8.1786184 4.7257318 -0.4399983 18 12
5.6976533 2.9307089 -0.33578753 0 11
8.3064842 4.2726159 0.76254791 0 28
8.1348305 5.2465572 -0.3943722 9 13
5.7329049 2.6029725 -0.21986683 22 14
8.2025843 4.7395792 -0.22044154 0 16
8.2798796 5.2992821 -0.17159207 0 17
8.2991886 4.2323022 -0.2711238 1 15
3.6760809 2.1070178 -1.1861316 0 1
2.8687315 1.4629549 -0.64404923 1 2
10.424983 5.9752831 0 0 20
8.3823223 3.7706871 -0.10700484 1 18
3.3776791 1.9359829 -0.60568619 1 3
6.2001629 3.1618707 -0.88589787 0 4
8.3012152 5.3129373 0.057282228 0 21
18.800135 9.5874252 -0.12265463 9 19
5.6448669 3.235466 -0.7008431 9 5
6.9663997 3.1337512 -0.71306694 0 6
8.1666546 4.6808782 -0.65822214 22 8
8.2219 4.1928873 -0.75343508 0 7
8.1364231 5.2074676 -0.61910903 14 9
9.8807459 5.663343 0.66325003 0 27
8.1707954 4.6832514 -0.43869543 18 12
5.7149634 2.9144359 -0.33620623 0 11
8.3000355 4.2327337 0.76059514 0 28
8.142992 5.2116714 -0.39388371 9 13
5.7346625 2.579669 -0.21958764 22 14
8.2190752 4.7109237 -0.22044154 0 16
8.3287115 5.2896423 -0.17222033 0 17
8.306776 4.1996965 -0.27089104 1 15
3.6934593 2.0998836 -1.1893666 0 1
2.8738213 1.4529315 -0.64404923 1 2
8.3077545 3.702328 -0.1058873 0 18
3.3981605 1.931994 -0.60814577 1 3
6.1899161 3.1294653 -0.88286746 0 4
8.3095818 5.2774925 0.057212483 0 21
18.894175 9.5524187 -0.12304985 6 19
6.8754387 3.0640202 -0.70265722 0 6
8.3552485 3.7234933 0.10649264 0 22
8.1586628 4.638535 -0.65626889 22 8
8.414381 4.2540984 -0.76970792 0 7
10.395413 6.6022234 0.3583954 1 25
8.1444445 5.1726122 -0.61834151 13 9
7.2365079 3.2249298 -0.4613913 0 10
9.8830976 5.618947 0.6620872 0 27
8.1697264 4.6448255 -0.43776479 17 12
5.710844 2.8872585 -0.33536884 0 11
8.3361082 4.2145257 0.76254791 0 28
8.140893 5.1703568 -0.3929067 9 13
5.7363305 2.5563798 -0.21930845 22 14
8.1833248 4.6525564 -0.21904573 0 16
8.4012604 5.2946568 -0.1733373 0 17
8.2927885 4.1563444 -0.26996017 1 15
3.781291 2.1323893 -1.2152458 0 1
2.8753686 1.4411342 -0.64326477 1 2
8.4630461 4.7725787 0 0 20
8.30233 3.6652303 -0.10565448 0 18
3.3979979 1.9162382 -0.60691595 1 3
8.3482542 5.2612514 0.057351965 0 21
6.8642306 3.0303521 -0.70042652 0 6
8.1643763 4.6041493 -0.65543187 12 8
8.3400755 4.1800442 -0.76157153 0 7
10.404864 6.5573711 0.35792994 1 25
8.1354322 5.1271257 -0.61629492 13 9
7.1710048 3.1657839 -0.45650762 0 10
9.8922157 5.5785322 0.66138953 0 27
8.1684875 4.6064677 -0.43683419 18 12
5.7244573 2.869097 -0.33557817 0 11
8.3151264 4.1675401 0.75929332 0 28
8.1386032 5.1291242 -0.39192972 9 13
5.7379041 2.5331128 -0.21902925 24 14
8.1925468 4.6200356 -0.21885961 0 16
8.4739485 5.2992253 -0.17445426 0 17
8.3072472 4.1273699 -0.26996017 1 15
2.8803818 1.4310879 -0.64326477 1 2
8.3187408 3.6378281 -0.10570104 0 18
3.4115658 1.9082233 -0.60814577 1 3
5.6572585 2.8107502 -0.80407614 0 4
8.4072685 5.2575269 0.057630941 1 21
8.8909349 4.4173684 -0.057700682 0 19
6.885715 3.0111585 -0.7015419 0 6
5.6973753 3.1867666 -0.45648634 9 8
8.265357 4.1065569 -0.75343508 0 7
10.397182 6.5019293 0.35688269 1 25
8.1397438 5.090229 -0.61527163 9 9
7.1673784 3.1343315 -0.4555774 0 10
9.883749 5.5283709 0.65952909 0 27
8.1810322 4.575974 -0.4366481 17 12
5.7165518 2.8402095 -0.33453146 0 11
8.3260536 4.136713 0.75896782 0 28
8.1429052 5.0922055 -0.39127842 9 13
5.7320614 2.50666 -0.21847086 24 14
8.2260771 4.6011696 -0.21932489 0 16
8.5449142 5.3063378 -0.1755712 0 17
8.3129997 4.0977173 -0.26972744 1 15
2.8918993 1.4255005 -0.64483368 1 2
8.4035883 4.6658607 0 0 20
8.3668242 3.627588 -0.10616669 0 18
3.4175432 1.8974966 -0.60814577 1 3
5.7052102 2.8122625 -0.80963188 0 4
8.4713144 5.260633 0.057956405 1 21
8.9729357 4.4230185 -0.05814239 0 19
8.2057438 4.5560131 -1.0109962 1 5
6.9061022 2.9942656 -0.70265722 0 6
8.3594837 3.6244056 0.10607356 1 22
8.2782173 4.0805717 -0.75343508 0 7
10.417555 6.4692359 0.35688269 1 25
8.1353464 5.0519986 -0.61373663 7 9
8.2497253 4.5804324 0.54953009 0 27
8.1813917 4.5424924 -0.43590355 17 12
5.703949 2.811641 -0.33327541 0 11
8.3247042 4.1034865 0.75766599 0 28
8.1384888 5.0539503 -0.39030144 9 13
5.7362404 2.4870508 -0.21833126 24 14
8.2125206 4.5597758 -0.21858048 0 16
8.6085749 5.302247 -0.17647873 0 17
8.3207779 4.0637097 -0.26949471 1 15
2.897105 1.414891 -0.64483368 1 2
8.2804661 4.5578728 0 1 20
8.4645996 3.6331804 -0.10723767 0 18
3.4383256 1.8925809 -0.61060542 1 3
8.5484381 5.2652068 0.058351621 2 21
9.0286226 4.4094076 -0.058398113 0 19
8.2967777 3.5611477 -0.84281689 0 6
8.19765 4.5122876 0.21774299 0 24
8.4388704 3.6221368 0.10691171 1 22
5.6979609 3.1363671 -0.45481223 5 8
6.5735946 3.2104187 -0.59721524 0 7
10.430984 6.4247165 0.35653359 1 25
8.1334162 5.0095844 -0.61220163 5 9
8.2699575 4.5520883 0.54976261 0 27
8.1839857 4.5047665 -0.43515906 18 12
5.7142162 2.7907147 -0.33327541 0 11
8.3396893 4.0729456 0.75766599 0 28
8.1399441 5.0136051 -0.38948733 10 13
5.7526646 2.469162 -0.21861045 28 14
8.19765 4.5122876 -0.21774299 0 16
8.694355 5.3153949 -0.17787492 0 17
8.3090172 4.0238972 -0.26868016 1 15
2.8982506 1.403567 -0.64404923 1 2
8.2218103 4.4901285 0 0 20
8.5391722 3.6317039 -0.10802926 0 18
3.4411135 1.8792748 -0.60999054 1 3
6.378242 3.0888598 -0.90206027 0 4
8.668231 5.2994237 0.059049051 0 21
8.3085403 3.5336163 -0.84281689 0 6
8.2617016 4.5119138 0.21904573 0 24
8.5207682 3.6238766 0.10779643 1 22
6.5913811 3.1920788 -0.59786618 0 7
12.385915 5.99826 0.24021493 0 23
8.1465778 4.980505 -0.61194581 4 9
8.0255461 3.4132588 -0.5079025 0 10
8.2674828 4.5150709 0.54859984 0 27
12.395518 6.0029111 0.56110919 0 26
5.7126532 2.7665279 -0.33264738 0 11
8.3208551 4.0296302 0.7547369 0 28
8.1462955 4.9803324 -0.38899884 10 13
5.7387481 2.4406853 -0.21777286 25 14
8.2160759 4.4869967 -0.21783605 0 16
8.7504711 5.3078265 -0.17864282 0 17
8.3158045 3.9914067 -0.26844746 1 15
2.9066687 1.3951381 -0.64483368 1 2
8.6402645 3.6391327 -0.1091468 0 18
3.4546039 1.8710153 -0.6112203 0 3
8.7140379 5.285727 0.059235029 0 21
8.474246 4.0674548 -0.054631993 0 19
8.1865616 4.433846 -1.0028569 15 5
8.2290649 3.4659424 -0.83352244 0 6
8.6586952 3.6468954 0.10937963 0 22
8.3204947 3.9936578 -0.75343508 0 7
8.13661 4.9354734 -0.60989916 7 9
8.0374126 3.3852215 -0.5079025 0 10
8.2199907 4.451951 0.54441381 0 27
5.7480135 3.1131272 -0.30449966 9 12
5.707871 2.7396548 -0.33181 0 11
8.32409 3.9953835 0.75376058 0 28
8.1397114 4.9373541 -0.38785902 10 13
5.7398653 2.4175339 -0.21749367 25 14
8.1859779 4.4335303 -0.21662636 0 16
2.435643 1.1586118 -1.257712 0 0
8.8340559 5.3164296 -0.17996921 0 17
8.2935829 3.9451773 -0.26728383 1 15
2.9150636 1.3866677 -0.64561814 1 2
8.2247696 4.4174752 0 2 20
8.7045975 3.6305034 -0.1097987 0 18
3.4611146 1.8589443 -0.6112203 1 3
8.7564268 5.269712 0.059397761 0 21
8.2411146 3.4371943 -0.83352244 0 6
8.2295904 4.4200644 0.21737079 2 24
8.7747364 3.6597567 0.11068343 0 22
8.3343868 3.9645872 -0.75343508 0 7
8.1413202 3.3955722 -0.5137164 0 10
8.3375025 4.4780231 0.55115795 0 27
5.7588463 3.0930424 -0.30449966 13 12
5.7137942 2.7179968 -0.33160067 0 11
8.3199863 3.9577372 0.75213325 0 28
8.1397753 4.8986044 -0.38704485 9 13
5.7298222 2.3897877 -0.21679568 27 14
8.215497 4.4124951 -0.21699856 0 16
8.9084282 5.3168125 -0.18108617 0 17
8.3007507 3.9113462 -0.2670511 1 15
2.920126 1.3759748 -0.64561814 1 2
8.2303114 4.3816624 0 0 20
8.2261267 3.3956039 -0.10360565 0 18
3.4713931 1.8481042 -0.61183524 1 3
8.8237667 5.266284 0.059723228 1 21
8.3801107 3.9487412 -0.053841576 1 19
5.706141 2.355397 -0.57625324 0 6
8.2245541 4.3785973 0.21681248 0 24
8.2483091 3.4047604 0.10388503 0 22
6.8859129 3.6659303 -0.54549563 0 8
8.2911577 3.9068258 -0.74822772 0 7
12.452692 5.8677573 0.24028473 110 23
8.1477251 4.8628025 -0.60810834 15 9
12.473188 5.8774152 0.56176049 111 26
5.7128758 2.6919296 -0.33097261 0 11
8.3416471 3.9306171 0.75278419 0 28
8.1439457 4.8605466 -0.38639355 9 13
5.7311525 2.3657212 -0.21651648 26 14
8.2139645 4.3729601 -0.21653332 0 16
2.4241624 1.1319503 -1.2475692 4 0
8.8718719 5.2530789 -0.17996921 0 17
8.3216 3.8857288 -0.26728383 1 15
2.9213574 1.3641129 -0.64483368 1 2
8.8266163 3.6074648 -0.11100937 0 18
3.4883091 1.8415103 -0.61367995 0 3
8.8971663 5.2680559 0.060095191 1 21
8.3865957 3.9160779 -0.053795077 1 19
8.2722349 3.8626776 -0.74529868 0 7
12.50209 5.8377867 0.24084321 110 23
8.1543465 4.8282285 -0.60734081 16 9
5.6961956 2.3280523 -0.35836896 0 10
8.2845802 4.3735056 0.54557663 0 27
12.497252 5.8355279 0.56192338 106 26
5.7242961 3.0219083 -0.30152169 2 12
5.7222385 2.6719699 -0.33097261 0 11
8.3336449 3.8913527 0.75083143 0 28
8.153985 4.8280144 -0.38606787 9 13
5.7319746 2.3426752 -0.21623728 26 14
8.2114973 4.3349247 -0.21606804 0 16
8.3547821 4.9095693 -0.16914873 0 17
8.3380661 3.8597968 -0.26740021 1 15
2.9223049 1.3527721 -0.64404923 1 2
8.2882919 4.3403883 0 1 20
8.9534607 3.6247094 -0.11245287 0 18
3.4943955 1.8299348 -0.61367995 0 3
8.9663124 5.2689266 0.060443908 1 21
8.3632345 3.8714478 -0.0535626 2 19
8.3073034 4.3503442 0.21820825 1 24
8.9275084 3.614203 0.11212692 0 22
8.1479158 4.2668767 -0.64315468 0 8
12.543152 5.8063846 0.24126206 110 23
8.1496592 4.789032 -0.60580587 15 9
8.2884216 4.3404565 0.54487896 0 27
12.534665 5.8024559 0.56273746 108 26
5.7272038 2.9992054 -0.30114943 2 12
5.7056913 2.6412373 -0.32950723 0 11
8.3501177 3.8653758 0.75115687 0 28
8.1527195 4.7908301 -0.38525376 9 13
5.7285943 2.3191578 -0.21581849 27 14
8.197485 4.2928352 -0.21532363 0 16
2.4318106 1.1154244 -1.2475692 12 0
8.3234978 4.8521748 -0.16817139 0 17
8.3478546 3.8289993 -0.26728383 1 15
2.9270093 1.3425623 -0.64404923 1 2
8.4240923 4.3740993 0 2 20
9.0774384 3.6380703 -0.1138498 0 18
3.5077779 1.8213676 -0.61490977 0 3
6.8815465 3.1564319 -0.96367913 0 4
10.339261 6.0272613 0.069556989 0 21
8.3839693 3.8455641 -0.053609092 2 19
5.637671 2.2594748 -0.56695884 33 6
9.0143242 3.6127751 0.11305821 0 22
7.9856954 4.1464677 -0.62920338 0 8
12.574251 5.7675653 0.2414715 108 23
8.155983 4.7545218 -0.60503834 15 9
8.3141556 4.3170166 0.54557663 1 27
12.580274 5.7703276 0.56387728 108 26
5.7234545 2.9718287 -0.30040494 2 12
5.7148767 2.6213031 -0.32950723 0 11
8.3563128 3.8328786 0.75050592 0 28
8.1486769 4.7502627 -0.38427678 10 13
5.7292333 2.2961714 -0.21553929 28 14
8.2408123 4.278934 -0.21606804 0 16
2.4389904 1.1084282 -1.2492596 18 0
8.3320503 3.7865996 -0.26635292 1 15
2.9388199 1.3355818 -0.64561814 1 2
8.5139942 4.3831129 0 2 20
10.298377 4.0857325 -0.12898321 0 18
3.5176291 1.8109204 -0.61552471 0 3
6.8925238 3.1323895 -0.96367913 0 4
10.384477 6.0051479 0.069719717 0 21
8.4228334 3.8278573 -0.053771831 2 19
5.6381207 2.2368429 -0.56621534 30 6
7.3061962 3.3203881 -0.65514678 0 7
12.612514 5.7319074 0.24182054 108 23
8.144886 4.7100344 -0.60299176 16 9
5.6901712 2.2574933 -0.35650852 35 10
8.3078728 4.276999 0.54418129 0 27
12.629449 5.739604 0.56517994 108 26
5.7231364 2.9463437 -0.29984656 1 12
5.7203555 2.599684 -0.32929787 0 11
8.3406067 3.7904882 0.74790227 0 28
8.1479101 4.7117839 -0.38346261 11 13
5.7297826 2.2732086 -0.2152601 28 14
8.2237015 4.2336664 -0.21523058 0 16
2.4232011 1.0905552 -1.2391168 21 0
8.2331047 4.72087 -0.16565825 2 17
8.309412 3.7396286 -0.26518929 1 15
2.9401183 1.3231924 -0.64483368 1 2
8.6190786 4.397326 0 2 20
3.5312839 1.8016087 -0.61675453 0 3
6.773694 3.0484829 -0.9454965 0 4
8.4659872 3.8100948 -0.053957812 0 19
6.7805018 3.4593117 -0.81993502 1 5
5.6425729 2.2147093 -0.56584352 30 6
8.3706017 4.2705569 -0.65710598 0 8
7.2892332 3.2804999 -0.65254313 0 7
12.648026 5.6922102 0.24209979 104 23
8.1517048 4.6741953 -0.60222423 16 9
5.6872549 2.2322471 -0.35581085 28 10
9.9170494 5.0595317 0.64836639 0 27
12.683202 5.7080412 0.56664544 106 26
5.7262025 2.5770621 -0.32908851 0 11
8.3617134 3.7631669 0.74855322 0 28
8.1512566 4.6739383 -0.38281131 11 13
5.7306333 2.2492731 -0.2149809 28 14
8.2177906 4.1925945 -0.21467227 0 16
2.426615 1.0829376 -1.2391168 24 0
8.2374668 4.6890478 -0.16544881 2 17
8.3466759 3.7249129 -0.26600385 1 15
2.9514244 1.3171469 -0.64640266 1 2
8.7506189 4.4298472 0 0 20
10.191747 3.9633563 -0.12730689 0 18
3.5475049 1.7958621 -0.61859924 0 3
5.667192 2.5291262 -0.78993404 0 4
8.4402027 4.8044519 0.056445312 0 21
8.3537226 3.7280576 -0.053167392 0 19
6.9687481 3.5278063 -0.84135449 1 5
5.6383667 2.1926422 -0.5647282 31 6
8.0279684 4.0640182 -0.62920338 0 8
7.1174698 3.1763489 -0.63627023 0 7
12.735236 5.6834178 0.24342617 110 23
8.1524715 4.6406655 -0.60120094 15 9
5.6830745 2.2100282 -0.35511318 33 10
10.000587 5.0626211 0.652785 0 27
12.730268 5.6812005 0.56794804 106 26
5.7252336 2.8982987 -0.29891595 2 12
5.726974 2.5558054 -0.32866985 0 11
8.3407278 3.7222586 0.74562407 0 28
8.1554785 4.6423774 -0.38232282 12 13
5.7339449 2.2298107 -0.21484131 26 14
8.2130804 4.1577277 -0.21420699 0 16
2.4270649 1.0729941 -1.2374264 25 0
8.2433386 4.6543641 -0.16523938 2 17
8.3340311 3.6844361 -0.26518929 1 15
2.9524169 1.3052497 -0.64561814 1 2
8.8053551 4.4190078 0 1 20
10.089804 3.8832176 -0.1258634 1 18
3.5608177 1.7870126 -0.61982906 0 3
5.6578403 2.5013046 -0.78740865 0 4
8.4220924 4.7552924 0.056212835 0 21
8.3227854 3.6794643 -0.052888419 0 19
6.7641969 3.3946431 -0.8152228 1 5
5.6422701 2.1715152 -0.56435645 35 6
8.3987408 4.2149463 -0.65710598 0 8
7.2306108 3.1966193 -0.64538306 0 7
12.787919 5.6534791 0.24405445 110 23
8.1512423 4.6023645 -0.59992176 10 9
5.6795745 2.1858726 -0.35441551 35 10
10.028906 5.0330524 0.65348268 0 27
12.764645 5.6431894 0.56859934 16 26
5.7174602 2.8693335 -0.29798532 2 12
5.7395148 2.5374126 -0.32887918 0 11
8.3536711 3.6931188 0.74562407 0 28
8.1577139 4.606019 -0.38167149 11 13
5.7416945 2.2097802 -0.21484131 23 14
23.991575 10.606563 4.7826915 2 30
8.2168226 4.1236501 -0.21392784 0 16
2.4245243 1.0607612 -1.2340454 26 0
8.2785988 4.6324444 -0.16558844 2 17
8.3481159 3.6524103 -0.26518929 1 15
2.9538131 1.2923319 -0.64483368 1 2
8.854495 4.4011912 0 2 20
10.074732 3.8330712 -0.12549089 1 18
3.5959675 1.787402 -0.62474835 1 3
5.6601319 2.476382 -0.78639853 0 4
8.3258572 3.6426718 -0.052818675 0 19
6.9053884 3.4323738 -0.83064479 1 5
5.6654553 2.1555009 -0.56584352 29 6
8.4148626 4.1826687 -0.65710598 0 8
7.3268375 3.2055876 -0.65286857 0 7
12.802203 5.6011324 0.24391484 17 23
5.7060046 3.1929014 -0.41904986 7 9
5.6953897 2.1668899 -0.3548806 28 10
10.005246 4.9731808 0.65069199 0 27
5.7212787 2.8438034 -0.29761308 2 12
5.7126193 2.499346 -0.32678574 0 11
8.3495264 3.6530278 0.74399674 0 28
8.1544123 4.5629535 -0.38069451 11 13
5.7650814 2.1934049 -0.2153997 16 14
23.877096 10.446544 4.7518396 2 30
8.2397566 4.0956311 -0.21411395 0 16
2.4278452 1.0531385 -1.2340454 24 0
8.2616463 4.5889335 -0.16496015 1 17
8.3338737 3.6150258 -0.26437476 1 15
2.9650559 1.286167 -0.64640266 1 2
8.9436159 4.410502 0 1 20
10.086726 3.8013988 -0.12549089 0 18
8.3326988 4.6283998 0.055399165 1 21
8.3335924 3.6149037 -0.052795429 0 19
5.7020144 2.1489263 -0.56881773 17 6
5.6403322 2.12568 0.070172451 0 22
8.2490244 4.0679679 -0.64315468 0 8
8.3755941 3.6331229 -0.74529868 0 7
5.6776223 3.1536367 -0.41623572 3 9
5.7283268 2.1588428 -0.35650852 17 10
10.006496 4.9346566 0.64976174 0 27
5.7158508 2.8187449 -0.29686856 2 12
5.7277732 2.4845645 -0.32720444 0 11
8.3573065 3.6251903 0.74367136 0 28
8.1512384 4.5276074 -0.3798804 11 13
5.8056111 2.187969 -0.21665607 12 14
23.884533 10.360512 4.7468176 2 30
8.2310648 4.0591106 -0.21355563 0 16
2.4215136 1.0403647 -1.228974 26 0
8.2180614 4.5272622 -0.16377339 0 17
8.3390942 3.5827587 -0.26414207 1 15
2.9695268 1.2758099 -0.64640266 1 2
8.9912987 4.3950677 0 0 20
3.692965 1.8051709 -0.63950622 4 3
8.2191744 4.5278754 0.054539002 0 21
8.4196606 3.6173728 -0.053260382 0 19
6.456388 3.1559694 -0.50252563 0 8
8.3882227 3.6038663 -0.74529868 0 7
8.2963829 4.5704088 0.27566192 0 25
10.490996 4.5072894 0.19930647 1 23
5.6885948 3.1338 -0.41623572 5 9
10.034422 4.9049602 0.65045941 0 27
10.472882 4.499507 0.46438873 1 26
5.722065 2.7970223 -0.29668245 2 12
5.7364097 2.4645569 -0.32720444 0 11
8.3589182 3.5912759 0.74269497 0 28
8.1529894 4.4914145 -0.37922904 11 13
5.6146941 2.0936661 -0.20925738 3 14
8.2092562 4.012795 -0.2126251 0 16
2.4251304 1.0319061 -1.228974 24 0
8.1987171 4.4793749 -0.1630753 0 17
8.3478689 3.5520639 -0.26402569 1 15
2.9847894 1.2700441 -0.64875603 1 2
8.3622293 4.0514693 0 0 20
5.6024985 2.0668728 -0.069520548 2 18
3.6992433 1.7922698 -0.63950622 6 3
5.622839 2.3925486 -0.7778123 29 4
8.2138672 4.4876523 0.054399516 0 21
8.4874439 3.6114538 -0.053609092 0 19
6.8503017 3.3189461 -0.81993502 1 5
5.6122541 2.0704718 -0.55840802 4 6
12.329419 5.9735584 0.31879807 1 24
5.6212606 2.0737946 0.069753371 1 22
6.4781375 3.138634 -0.50336272 0 8
8.4007511 3.5745654 -0.74529868 0 7
8.2315836 4.4973316 0.27298558 0 25
10.491945 4.4643798 0.19902724 1 23
5.612133 2.0704269 -0.34836903 4 10
10.019138 4.8542356 0.64836639 0 27
10.470136 4.4550996 0.46357456 1 26
5.7210054 2.771806 -0.29612407 2 12
5.7155728 2.4320073 -0.32552966 0 11
8.3493929 3.5527122 0.74074221 0 28
8.161602 4.4590974 -0.37890342 9 13
5.595715 2.0643702 -0.20828021 4 14
8.1620331 3.9544752 -0.21104321 0 16
2.4320583 1.0248417 -1.2306645 24 0
8.352849 3.5197954 -0.26379296 1 15
2.9819758 1.2565706 -0.64718711 1 2
5.5946507 2.0418172 -0.069334298 4 18
3.7090404 1.781056 -0.6401211 6 3
5.6238437 2.3698235 -0.77680218 30 4
8.5847778 3.6175275 -0.05414379 0 19
6.7435389 3.2382016 -0.80579823 1 5
5.6044817 2.0454054 -0.55692089 4 6
5.6171942 2.0500448 0.06961368 1 22
8.321332 3.5065141 -0.73716217 0 7
10.481668 4.4168549 0.19853857 0 23
5.6043215 2.0453467 -0.34743881 4 10
10.010824 4.8071299 0.64673853 0 27
10.478257 4.4154181 0.46324888 1 26
5.7270446 2.750088 -0.29593796 2 12
5.6908984 2.3980796 -0.32364559 0 11
8.3286791 3.5096104 0.73781312 0 28
5.7489328 3.1149232 -0.26638848 3 13
5.5878658 2.039341 -0.2077218 5 14
8.240675 3.9571161 -0.21271814 0 16
2.4255841 1.0121583 -1.225593 25 0
8.1804667 4.3955259 -0.16209795 0 17
8.3540144 3.4859996 -0.26344389 1 15
2.9899635 1.247665 -0.64797157 1 2
8.3903103 3.9929912 0 1 20
5.5829325 2.0154862 -0.069101475 5 18
3.7045281 1.7630037 -0.6382764 6 3
5.6247578 2.3471234 -0.77579194 31 4
8.2027149 4.4074802 0.054120544 0 21
8.7080975 3.6337528 -0.054841224 0 19
6.8014846 3.236861 -0.81136727 1 5
5.5928569 2.019069 -0.555062 4 6
5.6205535 2.0290678 0.069567114 2 22
8.3050165 3.9523997 -0.64315468 0 8
8.1993828 4.4056897 0.27089104 0 25
10.548694 4.4018049 0.19951591 0 23
5.6039143 2.0230608 -0.34697372 4 10
10.034755 4.7755904 0.64720362 0 27
10.478852 4.3726616 0.46259758 0 26
5.7330012 2.7283642 -0.29575184 1 12
8.3519173 3.4851243 0.7387895 0 28
5.5836697 2.0157523 -0.207303 6 14
8.2472162 3.9248919 -0.21253206 0 16
2.4326284 1.0046444 -1.2272835 25 0
8.1965227 4.3655109 -0.16209795 0 17
8.3704319 3.4568813 -0.26356024 1 15
2.9945168 1.2366971 -0.64797157 1 2
8.3831806 3.9519763 0 1 20
5.5789814 1.9909759 -0.068961777 3 18
3.7181153 1.7527839 -0.63950622 9 3
5.6223207 2.3219466 -0.77427679 31 4
8.1870413 4.3604612 0.053911313 0 21
8.2370434 3.4017935 -0.051795781 0 19
5.5927186 1.9958781 -0.55431849 4 6
12.44296 5.8658261 0.32010081 110 24
5.612885 2.0030751 0.069380865 1 22
8.1389828 3.8368573 -0.62920338 0 8
8.3462114 3.4468784 -0.73716217 0 7
8.215476 4.3756056 0.27089104 0 25
8.3283415 3.4394984 0.15728109 0 23
5.5962486 1.9971379 -0.34604347 4 10
10.055803 4.7404795 0.6474362 0 27
8.2562132 3.4097104 0.36392313 0 26
5.7285061 2.7005169 -0.29500732 2 12
5.674685 2.3435724 -0.32176149 2 11
8.3498955 3.4484003 0.73748761 0 28
5.7216897 3.0474019 -0.26410887 15 13
5.5721955 1.9885541 -0.20660502 5 14
8.2434597 3.8861096 -0.21206678 0 16
2.4292364 0.99382603 -1.2239026 23 0
8.3670483 3.4230471 -0.26309481 1 15
3.0058625 1.2297298 -0.64954054 1 2
8.3998652 3.9258463 0 2 20
5.5817823 1.9711311 -0.068915211 3 18
3.716747 1.7370967 -0.6382764 9 3
5.6263175 2.3017855 -0.7737717 30 4
8.7739773 3.5895262 -0.055096947 0 19
5.7898822 2.7060182 -0.68841988 1 5
5.5880404 1.973341 -0.55320311 4 6
12.498572 5.8414598 0.32103133 110 24
5.615726 1.9831178 0.069334298 1 22
8.2420368 3.852082 -0.63617909 0 8
8.365613 3.4224598 0.15776975 0 23
5.5915451 1.9745786 -0.3453458 4 10
10.07147 4.7071047 0.6474362 0 27
8.3673506 3.4231708 0.36831951 0 26
5.7338114 2.6798124 -0.2948212 2 12
5.6787281 2.3232272 -0.32155213 2 11
8.379735 3.4282374 0.73911494 0 28
5.7176294 3.0209417 -0.26345754 18 13
5.5749907 1.9687327 -0.20646542 5 14
8.2418127 3.8519773 -0.21169458 0 16
2.4293299 0.98398107 -1.2222121 23 0
18.538715 9.7124262 -0.36531377 7 17
8.3344727 3.3758128 -0.26169845 1 15
3.0065 1.2177593 -0.64875603 1 2
8.4171438 3.8981879 0 2 20
5.5810752 1.9490013 -0.068822086 3 18
3.7156131 1.7207924 -0.63704652 7 3
5.6269608 2.2791564 -0.77276158 32 4
8.3157387 4.3566117 0.054562252 0 21
8.9050875 3.606936 -0.055840872 0 19
5.7740293 2.6740959 -0.68542117 1 5
5.5836129 1.9498875 -0.55208778 4 6
12.537026 5.8062077 0.32149661 110 24
5.6226125 1.9635068 0.069334298 1 22
8.1649094 3.7813721 -0.62920338 0 8
8.301734 4.3492751 0.27275285 0 25
5.5757823 1.947153 -0.34395048 4 10
10.084212 4.6702485 0.64720362 0 27
8.3496122 3.3819451 0.36701688 0 26
5.7322516 2.6547477 -0.29426283 1 12
5.6942067 2.3063939 -0.32197085 2 11
8.3694782 3.3899915 0.73716217 0 28
5.7210569 2.9972594 -0.26313189 17 13
5.5705056 1.9453102 -0.20604663 5 14
8.244319 3.8181484 -0.21141542 0 16
2.43258 0.97591907 -1.2222121 23 0
18.631155 9.6822424 -0.36650056 9 17
8.3419123 3.3466654 -0.26158208 1 15
3.0141628 1.2092425 -0.64954054 1 2
8.4409313 3.8752589 0 1 20
5.5875087 1.9304816 -0.068822086 3 18
3.7105234 1.7035134 -0.63520181 7 3
5.630806 2.2590053 -0.77225649 32 4
8.4685631 4.4009447 0.055468909 1 21
8.9801102 3.6027021 -0.056236081 0 19
5.8334661 2.6781631 -0.69141859 1 5
5.5825205 1.9287583 -0.55134422 4 6
12.570749 5.7712722 0.32186881 107 24
5.6139717 1.9396245 0.069148034 1 22
8.1774054 3.7542734 -0.62920338 0 8
5.5746608 1.9260427 -0.34348539 4 10
10.12142 4.6467767 0.64859897 0 27
8.4201307 3.3780458 0.36962217 0 26
5.7301302 2.6307213 -0.29370445 1 12
8.3806753 3.3622167 0.73716217 0 28
5.7203269 2.9727407 -0.2626434 15 13
5.5731478 1.9255199 -0.20590703 5 14
8.2169609 3.7724333 -0.21039185 0 16
2.4326026 0.96608323 -1.2205217 24 0
18.703947 9.6372948 -0.36726844 7 17
8.3609743 3.3204753 -0.2618148 1 15
3.0220108 1.2001606 -0.650325 1 2
8.4434843 3.8407998 0 0 20
5.5677185 1.9019139 -0.068496138 3 18
5.6196432 2.5562816 -0.96048909 11 3
5.6312814 2.2364058 -0.77124631 33 4
8.5407658 4.4006686 0.055840872 1 21
9.0930033 3.6111932 -0.056863766 0 19
5.7848582 2.6314352 -0.68456435 1 5
5.5779128 1.9053962 -0.55022889 4 6
12.60902 5.7356319 0.32233408 107 24
5.6131382 1.9174291 0.069054909 1 22
5.6504855 2.2440324 -0.49632332 45 7
5.573792 1.9039886 -0.34302023 4 10
10.101231 4.5948806 0.64627337 0 27
5.7356415 2.6090474 -0.29351833 1 12
5.6986375 2.2631555 -0.3213428 4 11
8.3886557 3.3314686 0.73683673 0 28
5.7235637 2.9490924 -0.26231775 9 13
5.5798354 1.9060529 -0.20590703 6 14
8.2373581 3.7470365 -0.21057793 0 16
2.4361269 0.95716131 -1.2205217 24 0
8.3395967 3.2766514 -0.26076755 1 15
3.0300398 1.1905113 -0.65110946 1 2
5.5746517 1.8814956 -0.068496138 3 18
5.621767 2.5324221 -0.95925927 13 3
5.6394405 2.2157524 -0.77124631 28 4
8.720706 4.4530129 0.056910265 0 21
10.379405 4.0780978 -0.064814463 0 19
7.0998497 3.1982498 -0.83878416 1 5
5.577312 1.8823935 -0.54948539 4 6
12.659124 5.7025213 0.32307848 107 24
5.6125488 1.8942862 0.068961777 1 22
7.1853747 3.2367761 -0.55107617 0 8
5.6623821 2.2247663 -0.49664876 40 7
5.565599 1.8784403 -0.34209004 4 10
10.132566 4.5643897 0.64720362 0 27
5.7305932 2.5814447 -0.29277384 1 12
5.7106109 2.2437155 -0.32155213 11 11
8.374835 3.2904966 0.73455852 0 28
5.7236552 2.9226432 -0.26182926 6 13
5.5792089 1.8830336 -0.20562783 6 14
8.2364521 3.7102523 -0.21020573 0 16
2.4359088 0.94776338 -1.2188311 25 0
18.881374 9.5625057 -0.36943254 7 17
8.3578682 3.2518792 -0.26100028 1 15
2.6520131 1.1840825 -0.8130393 0 1
3.037626 1.1818795 -0.65189391 1 2
8.3459072 3.7263174 0 2 20
5.5732718 1.8604671 -0.068403013 4 18
5.6156979 2.5073214 -0.95679969 14 3
5.6282668 2.189846 -0.76872098 38 4
5.8357711 2.6055806 -0.68841988 1 5
5.5797453 1.862628 -0.54911363 4 6
12.725434 5.6817079 0.32428819 110 24
5.6112108 1.8731319 0.068868652 1 22
7.1559892 3.1950374 -0.54800689 0 8
5.6511512 2.1987498 -0.49502146 47 7
5.5604339 1.8561815 -0.34139234 4 10
10.133061 4.5242538 0.64627337 0 27
5.7391219 2.5624282 -0.29277384 1 12
5.7031293 2.2189734 -0.32071477 23 11
8.4005613 3.2684901 0.73586035 0 28
5.7190533 2.8964248 -0.26117793 6 13
5.5816302 1.8632572 -0.20548825 6 14
8.2414074 3.6796598 -0.21001965 0 16
2.4358191 0.93795252 -1.2171407 25 0
18.989695 9.5342274 -0.37089854 7 17
8.3467798 3.2140658 -0.2603021 1 15
3.0417328 1.1712697 -0.65189391 1 2
8.3442307 3.6906915 0 1 20
5.5759335 1.8397492 -0.068356447 3 18
5.6284704 2.1673357 -0.76771086 39 4
8.7901344 4.4132957 0.057165988 1 21
10.395722 4.0030456 -0.064744726 0 19
5.7793617 2.5562382 -0.68070889 1 5
5.5710845 1.8381492 -0.5476265 5 6
12.767132 5.6469607 0.32484651 110 24
5.6101189 1.8510284 0.068775527 1 22
7.1962914 3.1829526 -0.55023909 0 8
5.6662331 2.1818769 -0.49567243 57 7
5.5592952 1.8342594 -0.34092724 4 10
10.188963 4.5066252 0.64883155 0 27
5.7297597 2.5342989 -0.29184321 1 12
5.699657 2.1947472 -0.32008675 24 11
8.3858757 3.2291205 0.7335822 0 28
5.7148409 2.8692718 -0.26052663 5 13
5.5729151 1.8387532 -0.20492984 6 14
8.2542009 3.6508708 -0.21001965 0 16
2.4390786 0.92944366 -1.2171407 24 0
9.0047989 4.4817839 -0.1755712 0 17
8.3467407 3.1806378 -0.25995302 1 15
3.049468 1.1620408 -0.65267837 1 2
8.3460712 3.6567247 0 1 20
5.574717 1.8177931 -0.068263315 3 18
5.6185832 2.4617105 -0.95433998 27 3
5.6471252 2.1519132 -0.76922607 36 4
8.891428 4.4253578 0.057723928 1 21
10.114351 3.8542097 -0.062908158 0 19
5.9048157 2.5871196 -0.6944173 1 5
5.5698943 1.8162206 -0.54688293 5 6
12.790428 5.6039629 0.32493955 21 24
5.6013355 1.8264729 0.068589263 1 22
7.2365971 3.1706226 -0.55247128 0 8
5.6700892 2.1606638 -0.49534696 41 7
5.5542746 1.8111274 -0.34022957 5 10
10.179029 4.4598117 0.64720362 0 27
5.7385712 2.5142817 -0.29184321 1 12
5.7035508 2.1734147 -0.31987742 22 11
8.3933716 3.1984069 0.73325664 0 28
5.7212443 2.8475239 -0.26036379 3 13
5.5830998 1.8205267 -0.20506945 6 14
23.933794 10.486286 7.0015731 6 31
8.2595692 3.618825 -0.20983353 0 16
2.4423084 0.92092329 -1.2171407 25 0
9.0562563 4.4680157 -0.17626931 0 17
8.34657 3.1472483 -0.25960395 1 15
2.6324658 1.142444 -0.80333465 21 1
3.0535064 1.1513882 -0.65267837 1 2
8.3551178 3.6259744 0 0 20
5.5772214 1.7970945 -0.068216749 3 18
5.6126404 2.4357874 -0.9518804 28 3
5.6694551 2.1377861 -0.77124631 17 4
8.9713917 4.426147 0.05814239 2 21
5.625277 2.1211278 -0.034941226 0 19
6.898839 2.9939752 -0.81008214 1 5
5.5686188 1.7943225 -0.54613942 5 6
5.6076775 1.806908 0.068589263 1 22
7.1853943 3.1183352 -0.54772782 0 8
5.7037101 2.1507027 -0.49762514 22 7
5.5605636 1.7917268 -0.34022957 5 10
10.223842 4.4369683 0.64906406 0 27
5.7289872 2.48628 -0.2909126 1 12
5.7260542 2.159128 -0.32071477 13 11
23.796843 10.327413 3.1851776 3 29
8.4156771 3.1733062 0.73423302 0 28
5.7132297 2.8186922 -0.25954965 2 13
5.5818119 1.7985736 -0.20479026 6 14
23.910002 10.376522 6.9839735 6 31
8.2574787 3.5836012 -0.20946133 0 16
2.445667 0.91196615 -1.2171407 27 0
8.1994467 4.0080009 -0.15930556 0 17
2.6401744 1.1343089 -0.8044129 21 1
3.0613809 1.1415601 -0.65346289 1 2
8.4014263 3.6095395 0 1 20
5.5723362 1.7730038 -0.068077058 3 18
5.6070037 2.4089601 -0.94942069 30 3
5.6958408 2.1239254 -0.7737717 25 4
8.9623985 4.3809419 0.057979658 0 21
6.7197566 2.8870368 -0.78780597 1 5
5.5751576 1.7739016 -0.54613942 5 6
5.6066394 1.7839184 0.068496138 1 22
8.1756535 3.5125396 -0.62222773 0 8
5.7003469 2.1256056 -0.49664876 10 7
5.6135135 2.0932262 0.10457481 3 23
6.4445572 3.1501868 -0.45972684 0 9
5.5632873 1.7701247 -0.33999699 4 10
10.229028 4.3947392 0.64836639 0 27
5.6209497 2.0959992 0.24440654 3 26
5.7307186 2.4621122 -0.29054034 1 12
5.7114716 2.1297538 -0.31945869 4 11
23.867365 10.254234 3.1895647 3 29
8.4309864 3.1438353 0.73455852 0 28
5.7163401 2.7942245 -0.259224 3 13
5.5845571 1.7768922 -0.20465066 6 14
8.2485123 3.5438426 -0.208903 0 16
2.4418762 0.90133953 -1.2137598 25 0
8.248683 3.9982302 -0.16000366 0 17
5.6264043 2.0768051 -0.17454322 3 15
2.6403775 1.1240381 -0.80333465 21 1
3.0688295 1.1327592 -0.65424734 1 2
8.4317532 3.5894911 0 1 20
5.5820003 1.7557141 -0.068123624 3 18
5.6113253 2.3888037 -0.94880581 30 3
8.3937759 4.0685582 0.054213531 0 21
5.6136813 2.0721087 -0.034778494 2 19
6.7073383 2.8553886 -0.78523558 1 5
5.569612 1.7518176 -0.54502404 5 6
10.486247 4.4641123 0.26519981 1 24
5.6048932 1.7629147 0.068403013 1 22
8.0036869 3.4072585 -0.60827643 0 8
5.6250839 2.0763175 -0.48948869 5 7
5.624177 2.075983 0.10464463 4 23
5.5653176 1.7504668 -0.33976448 4 10
10.265591 4.3701763 0.64976174 0 27
5.6503668 2.08565 0.24538352 3 26
5.7241464 2.4368329 -0.28979585 1 12
5.6323142 2.0789864 -0.3146438 2 11
8.4413662 3.1158571 0.73455852 0 28
5.7363639 2.7804809 -0.25971246 5 13
5.5866051 1.7571625 -0.20451105 6 14
8.2712584 3.5211668 -0.20918216 0 16
2.4484119 0.89405555 -1.2154502 24 0
5.6223507 2.0530424 -0.17419413 5 15
2.6442842 1.1148165 -0.80333465 21 1
3.0801327 1.124733 -0.65581626 1 2
8.5695467 3.6128764 0 0 20
5.5766354 1.7326621 -0.067983925 4 18
5.6123443 2.3661351 -0.94757605 29 3
5.6244378 2.0538046 -0.762155 4 4
5.7351427 2.4179063 -0.67042756 1 5
5.5718894 1.7311875 -0.54465228 6 6
10.483339 4.4197211 0.26473454 1 24
5.6110125 1.743343 0.068403013 2 22
8.1074514 3.4180591 -0.61525214 0 8
5.6210608 2.0525715 -0.48851234 6 7
5.6276307 2.0549705 0.10457481 3 23
8.0526276 3.8685522 -0.57254797 0 9
5.5675797 1.7298485 -0.3395319 4 10
10.247663 4.3203616 0.64766872 0 27
5.6726274 2.0714014 0.24603482 3 26
5.7289343 2.4152889 -0.28960973 1 12
5.6132698 2.0497265 -0.31317839 1 11
8.4596777 3.0891132 0.73520941 0 28
5.7136111 2.7448683 -0.25824702 3 13
5.5850687 1.7352824 -0.20423186 6 14
8.2466478 3.4767439 -0.20825164 0 16
2.4481089 0.88427132 -1.2137598 24 0
8.2619495 3.9336736 -0.15972443 1 17
5.6031599 2.0238943 -0.17337959 4 15
2.6410508 1.1026107 -0.80117798 21 1
3.0840404 1.1139736 -0.65581626 1 2
8.6928434 3.6291699 0 0 20
5.5750022 1.7108371 -0.067890801 3 18
5.6059804 2.3404372 -0.94511634 29 3
5.6278419 2.0328097 -0.76164991 5 4
8.3461323 3.9737544 0.053725336 0 21
5.6016755 2.0233581 -0.034615763 5 19
5.7508883 2.4009349 -0.67128432 1 5
5.574091 1.7105575 -0.54428053 6 6
10.498704 4.3830972 0.26473454 0 24
5.6055927 1.7202245 0.068263315 1 22
8.1193342 3.3897357 -0.61525214 0 8
5.6056952 2.0248101 -0.4865596 7 7
12.385957 5.8971925 0.3992385 104 25
5.6272478 2.0325949 0.1044352 3 23
8.066083 3.8404176 -0.57254797 0 9
5.5735841 1.7104019 -0.3395319 5 10
10.262683 4.2845612 0.64766872 0 27
5.6760659 2.0502284 0.24587201 5 26
5.7152076 2.3860385 -0.28849298 1 12
5.5978498 2.0219765 -0.31192234 1 11
8.4366636 3.0473726 0.73228025 0 28
5.7231579 2.7249057 -0.25824702 2 13
5.5872703 1.7146019 -0.20409225 6 14
8.2513542 3.4448526 -0.20806552 0 16
2.4511807 0.87571985 -1.2137598 24 0
8.2430782 3.8894477 -0.15909614 2 17
5.6026602 2.0016317 -0.17314686 5 15
2.6448839 1.0933843 -0.80117798 21 1
3.0879104 1.1032008 -0.65581626 1 2
8.2507801 3.4108391 0 0 20
5.5732856 1.689045 -0.067797676 3 18
5.6104636 2.3193431 -0.9445014 28 3
5.6274304 2.0104811 -0.76063979 4 4
8.3671885 3.9480085 0.053771831 1 21
5.6011715 2.0010996 -0.034569267 5 19
5.6710272 2.3443797 -0.66100305 1 5
5.5800285 1.6910887 -0.54428053 5 6
8.2300692 3.4022772 0.20722805 0 24
5.6153913 1.7018057 0.068309881 1 22
8.2233067 3.3994815 -0.62222773 0 8
5.5939574 1.9985224 -0.4849323 7 7
12.428164 5.8641553 0.39993668 111 25
5.6305428 2.0115931 0.10436539 3 23
8.0794411 3.8122363 -0.57254797 0 9
5.5757003 1.6897769 -0.33929935 5 10
10.314481 4.2639647 0.64999431 0 27
5.6606059 2.0223336 0.24489503 4 26
5.7235026 2.3660729 -0.28849298 1 12
5.5935893 1.9983909 -0.31129432 2 11
8.4547596 3.0205855 0.7329312 0 28
5.7254062 2.701499 -0.25792137 2 13
5.5932221 1.695087 -0.20409225 6 14
8.267025 3.4175546 -0.20815857 0 16
2.4576404 0.86836648 -1.2154502 25 0
8.2457352 3.8555698 -0.1588867 2 17
5.5983024 1.9780673 -0.17279777 5 15
2.648684 1.0841458 -0.80117798 21 1
3.0991387 1.0950294 -0.65738523 1 2
8.6624403 3.5456657 0 0 20
5.575315 1.6684346 -0.06775111 3 18
5.6075516 2.2952542 -0.94265676 29 3
5.6119657 1.982895 -0.75760943 4 4
8.3700485 3.9136968 0.05370209 1 21
5.6005783 1.9788715 -0.034522768 5 19
5.5820813 1.6704595 -0.54390872 5 6
8.2863054 3.3917081 0.20834468 0 24
5.6174655 1.6810483 0.068263315 1 22
5.6907277 2.3292997 -0.42997891 0 8
5.5933805 1.9763281 -0.48428136 7 7
12.499263 5.8444495 0.40156573 117 25
5.6337581 1.990595 0.10429558 3 23
8.1830978 3.8262818 -0.57894367 0 9
5.5777383 1.6691598 -0.3390668 5 10
10.314519 4.2218862 0.64906406 0 27
5.6638613 2.0012314 0.24473219 4 26
5.7206321 2.3415399 -0.2879346 2 12
5.589231 1.9748621 -0.31066626 1 11
8.4765282 2.9950404 0.73390758 0 28
5.7166986 2.6730342 -0.25710723 2 13
5.587616 1.6721157 -0.20367347 6 14
8.2418938 3.3735299 -0.20722805 0 16
2.4572346 0.85858601 -1.2137598 24 0
8.270031 3.8318055 -0.15909614 2 17
5.5976248 1.9558744 -0.17256504 5 15
2.6524527 1.0748929 -0.80117798 21 1
3.1029427 1.0842038 -0.65738523 1 2
5.5811057 1.6489615 -0.06775111 4 18
5.611867 2.2741804 -0.94204181 29 3
5.6113615 1.9606742 -0.75659919 4 4
8.4018059 3.8928614 0.053818323 0 21
5.5999002 1.9566694 -0.034476273 5 19
5.5802402 1.6487058 -0.54316521 6 6
5.6156282 1.6591613 0.06817019 1 22
5.5889549 1.9528451 -0.48330498 7 7
12.555869 5.8175898 0.40272936 117 25
5.6331224 1.9682776 0.10415597 3 23
8.2869539 3.8396463 -0.58533943 0 9
5.5797019 1.6485467 -0.33883423 5 10
8.3714218 3.3924758 0.52604187 0 27
5.6594944 1.9774923 0.24424371 4 26
5.7139592 2.3155527 -0.28719011 3 12
5.5885496 1.9527034 -0.3102476 1 11
8.449296 2.952281 0.73065305 0 28
5.7259955 2.6530614 -0.25710723 2 13
5.5895853 1.6514668 -0.20353387 6 14
8.2425032 3.3402321 -0.20694891 0 16
2.4636428 0.85118777 -1.2154502 24 0
8.2869902 3.804585 -0.15916595 2 17
5.596859 1.933713 -0.17233233 5 15
2.6526134 1.0641938 -0.80009973 21 1
3.1141224 1.0759283 -0.65895414 1 2
8.9691238 3.5982952 0 0 20
5.5829868 1.628351 -0.067704543 4 18
5.6050978 2.248692 -0.93958217 29 3
5.6106696 1.9384845 -0.75558907 4 4
8.4080715 3.8601739 0.053771831 0 21
5.5877924 1.9305805 -0.034360036 5 19
5.6288271 2.2582119 -0.65329206 36 5
5.5783143 1.6269881 -0.54242164 6 6
5.6137047 1.6373103 0.068077058 1 22
5.5806642 1.9281178 -0.48200318 7 7
12.594265 5.7820692 0.40331116 113 25
5.6323977 1.9459916 0.10401635 3 23
8.1189175 3.7274222 -0.57254797 0 9
5.5854216 1.629061 -0.33883423 5 10
8.3757992 3.3602614 0.52557677 0 27
5.6625843 1.9564209 0.24408089 4 26
5.7220063 2.2955942 -0.28719011 3 12
5.5840044 1.9292717 -0.30961955 1 11
8.4633169 2.924073 0.73097849 0 28
5.7243237 2.6280563 -0.25661874 3 13
5.599153 1.6330661 -0.20367347 6 14
8.2615337 3.3144195 -0.20713501 0 16
2.4700301 0.84375411 -1.2171407 22 0
8.311142 3.7806003 -0.15937537 2 17
5.5922251 1.9102856 -0.17198324 5 15
2.6527324 1.0535057 -0.79902142 22 1
3.1178596 1.0650506 -0.65895414 1 2
9.0336761 3.5876324 0 1 20
5.5924816 1.6099578 -0.06775111 5 18
5.6092396 2.2276525 -0.93896729 29 3
5.6061382 1.9150383 -0.75407386 4 4
10.424013 4.7417102 0.066558041 0 21
5.5944982 1.9110621 -0.034360036 5 19
5.6329794 2.2370803 -0.65286362 38 5
5.5877867 1.6086063 -0.54279339 6 6
5.6078563 1.6143839 0.067937367 1 22
5.6925573 2.2607412 -0.42830476 26 8
5.5798163 1.9060469 -0.48135227 7 7
12.628932 5.7446909 0.40377662 111 25
5.6353722 1.9250245 0.10394654 3 23
5.5872374 1.6084481 -0.33860168 5 10
8.3540773 3.3177371 0.52348381 0 27
5.6618156 1.9340575 0.24375522 3 26
5.722558 2.2726557 -0.28681785 3 12
5.5793653 1.9058927 -0.30899152 2 11
8.4772463 2.8957994 0.73130399 0 28
5.7261877 2.6047475 -0.25629306 3 13
5.6086612 1.6146156 -0.20381306 6 14
8.2656212 3.2826076 -0.20694891 0 16
2.4728143 0.83555907 -1.2171407 21 0
8.3455086 3.7628837 -0.15979423 1 17
5.5985284 1.8917317 -0.17198324 5 15
2.6562111 1.0447036 -0.79902142 22 1
3.1213741 1.0547061 -0.65895414 1 2
10.348376 4.0700779 0 0 20
5.5900946 1.5892171 -0.067657977 5 18
5.6092396 2.2061472 -0.93773746 26 3
5.5974207 1.8913574 -0.75205356 4 4
8.3356991 3.7584608 0.053144142 0 21
5.6008043 1.8925008 -0.034360036 5 19
5.6366658 2.2169342 -0.6524353 34 5
5.5892596 1.5889798 -0.54242164 6 6
5.6131783 1.5957798 0.067937367 1 22
5.6814556 2.2345502 -0.42690963 25 8
5.5672212 1.881153 -0.47972497 7 7
12.662491 5.7093563 0.40424207 110 25
5.6341462 1.9037669 0.10380692 3 23
7.2052369 3.2487497 -0.50654376 0 9
5.5963807 1.5910043 -0.33883423 5 10
8.3501682 3.2841709 0.52255356 0 27
5.660625 1.912714 0.24342957 4 26
5.5780859 1.8848242 -0.30857283 2 11
8.4943552 2.8702257 0.73195481 0 28
5.7202196 2.5791743 -0.25564176 3 13
5.6101394 1.5949157 -0.20367347 6 14
8.2504101 3.2449353 -0.20629752 0 16
2.4825933 0.82921863 -1.2205217 19 0
8.3074713 3.7108915 -0.1588169 0 17
5.5899291 1.8671094 -0.17151779 5 15
2.659842 1.0354247 -0.79902142 22 1
3.1287572 1.0450459 -0.6597386 1 2
10.414707 4.0542426 0 0 20
5.5994592 1.5707734 -0.067704543 4 18
5.6132236 2.1851187 -0.93712252 30 3
5.5964627 1.8692918 -0.75104344 4 4
5.5922012 1.8678684 -0.034267046 5 19
5.6332521 2.1929154 -0.65115011 39 5
5.5947723 1.5694586 -0.54242164 6 6
5.6187148 1.576175 0.067937367 2 22
5.6743479 2.2089133 -0.4257935 27 8
5.5661912 1.8591808 -0.47907406 7 7
12.707899 5.6765332 0.4050566 110 25
5.6179976 1.8764848 0.10338806 3 23
7.1655087 3.2007844 -0.50296211 0 9
5.5942111 1.5693011 -0.33836913 4 10
8.350419 3.2506557 0.52185589 0 27
5.6634765 1.8916754 0.24326673 4 26
5.7490654 2.2379994 -0.28737622 28 12
5.580843 1.8640746 -0.30836347 2 11
8.4891977 2.8355033 0.73065305 0 28
5.714592 2.5526698 -0.25499043 3 13
5.6079745 1.5731621 -0.20339426 6 14
8.2579613 3.2146637 -0.20620447 0 16
2.4854724 0.82054824 -1.2205217 13 0
8.3020868 3.67378 -0.15846786 0 17
5.5964117 1.8475868 -0.17151779 5 15
2.6634395 1.0261344 -0.79902142 22 1
3.1361103 1.0353484 -0.66052312 1 2
5.6010528 1.5501523 -0.067657977 4 18
5.6134396 2.1626709 -0.9358927 30 3
5.5954165 1.8472582 -0.75003326 4 4
8.3141832 3.6791329 0.05284192 1 21
5.5872922 1.8445759 -0.034197304 5 19
5.6297383 2.1689503 -0.64986497 40 5
5.5963778 1.5488585 -0.54204983 6 6
5.6280365 1.5576204 0.067983925 2 22
5.6782999 2.1876593 -0.42551449 28 8
5.5650749 1.8372412 -0.47842312 7 7
12.75323 5.6434679 0.40587112 56 25
5.6207151 1.8556101 0.10331824 4 23
7.1328325 3.1563699 -0.49989218 0 9
5.5919576 1.5476352 -0.33790401 5 10
8.3430824 3.2143111 0.52069312 0 27
5.6624546 1.8693899 0.24294108 4 26
5.7270136 2.2064271 -0.28588721 24 12
5.5797291 1.842079 -0.3079448 2 11
8.5066147 2.8083546 0.73130399 0 28
5.7198119 2.5310903 -0.25482759 3 13
5.613431 1.5535781 -0.20339426 6 14
8.250474 3.1786323 -0.20573923 0 16
2.4986606 0.81524003 -1.225593 7 0
8.3295116 3.6511981 -0.15874709 0 17
5.5952253 1.8255587 -0.17128508 5 15
2.6670055 1.0168302 -0.79902142 22 1
3.1471632 1.0268276 -0.66209203 1 2
10.420331 3.9728854 0 0 20
5.6064301 1.5305901 -0.067657977 4 18
